338,188,14,170
333,179,-3,155
325,167,-19,142
320,161,-30,138
316,156,-33,136
314,157,-29,139
314,157,-24,142
316,155,-15,146
322,151,-7,152
329,143,-10,149
332,133,-14,140
329,129,-18,139
326,132,-25,142
323,132,-40,141
324,124,-51,141
326,116,-56,140
325,119,-57,144
322,121,-60,148
315,118,-64,148
311,113,-69,144
303,106,-84,140
295,101,-97,133
291,88,-109,128
287,73,-112,130
275,43,-114,124
263,21,-105,126
252,7,-96,135
247,0,-83,146
242,0,-69,156
240,4,-62,158
239,2,-62,161
241,3,-65,168
239,2,-67,169
241,0,-62,172
249,-3,-64,164
256,-3,-58,152
257,-7,-52,138
251,-11,-47,128
240,-12,-41,124
226,-12,-31,133
217,-8,-23,149
215,-3,-21,163
218,-4,-16,177
220,-1,-7,192
220,7,4,201
216,10,17,205
211,13,29,209
205,11,34,209
195,5,38,213
186,-2,42,222
176,1,51,239
167,9,56,251
165,21,63,255
176,42,74,257
186,59,79,258
185,71,84,263
175,75,93,275
158,69,103,283
141,59,109,282
128,40,117,284
120,19,117,284
112,1,104,281
101,-13,92,271
99,-18,83,260
100,-17,73,247
101,-14,68,236
101,-5,74,226
100,7,80,215
99,13,86,210
103,19,96,214
108,24,102,208
114,25,103,207
116,21,101,206
111,13,102,212
106,3,105,224
103,-7,106,225
102,-12,113,228
94,-6,120,244
81,1,117,261
69,2,115,267
60,0,109,268
54,2,113,271
47,1,114,271
41,-4,113,262
42,-10,110,257
48,-3,115,256
50,2,116,254
51,10,114,251
53,10,114,251
56,8,114,250
52,5,113,246
40,8,113,236
34,13,106,230
29,23,103,231
19,27,97,227
6,32,90,218
-5,40,84,206
-11,49,77,199
-18,50,65,189
-25,50,56,180
-27,54,56,170
-24,57,54,161
-16,49,53,151
-20,34,59,145
-34,22,62,145
-46,15,61,148
-56,8,60,141
-63,5,59,136
-69,8,55,136
-85,6,48,138
-100,12,47,147
-109,12,42,148
-108,9,41,153
-105,9,38,160
-99,11,37,159
-82,22,43,158
-66,40,46,161
-60,50,48,162
-66,51,49,151
-77,57,48,137
-90,62,35,129
-96,67,29,130
-97,71,24,124
-96,74,15,117
-88,65,8,109
-72,49,4,100
-61,31,-2,84
-53,15,-3,65
-50,1,-2,55
-58,-6,4,56
-70,-5,20,70
-72,10,35,83
-72,22,45,88
-68,30,50,90
-59,41,59,94
-47,51,69,97
-35,58,75,97
-21,64,71,92
-7,67,65,80
4,73,63,64
13,72,59,43
18,63,50,25
18,59,53,22
9,53,57,24
-5,46,63,24
-29,37,67,26
-58,19,70,23
-72,4,76,25
-80,1,83,31
-82,-5,83,30
-82,-7,78,27
-86,-8,68,26
-93,-14,61,24
-99,-19,53,14
-100,-17,49,6
-94,-10,45,4
-89,-5,36,8
-83,-4,28,14
-74,-1,24,18
-70,5,25,22
-67,8,22,17
-58,11,17,15
-44,13,18,20
-32,18,26,31
-18,24,36,46
-1,38,48,66
14,51,56,76
24,61,62,81
27,64,59,78
33,70,52,70
37,86,48,58
38,98,47,42
39,103,42,30
32,102,34,8
28,96,30,-21
27,90,23,-33
26,84,17,-28
16,83,11,-25
14,74,1,-23
13,59,-9,-16
6,47,-18,-5
-9,37,-19,-4
-31,30,-14,-7
-41,35,-9,-3
-27,50,-15,9
-26,54,-23,25
-28,57,-23,44
-29,65,-19,60
-31,75,-10,74
-28,78,-6,88
-19,81,-4,100
-1,92,0,110
13,102,-5,109
15,112,-4,107
2,113,-2,102
12,111,12,99
24,109,31,96
19,108,44,103
6,108,43,105
-2,112,40,98
5,116,40,90
10,125,38,82
22,129,31,76
37,126,24,76
44,124,28,83
43,122,38,97
42,121,45,115
28,115,42,121
10,104,30,114
1,95,24,113
-10,89,19,109
-18,81,15,101
-15,80,14,103
-7,77,11,108
-6,77,13,115
-4,80,10,119
-5,77,-5,118
-12,71,-21,112
-20,66,-22,110
-30,62,-13,113
-38,55,1,120
-60,49,19,126
-56,47,36,131
-49,45,45,133
-54,39,49,133
-56,35,49,125
-50,40,44,110
-49,47,36,96
-55,53,28,90
-56,50,18,82
-40,43,12,69
-24,37,5,57
-22,25,2,51
-22,12,-2,46
-23,5,-6,34
-32,1,-11,16
-42,-1,-17,3
-67,13,-20,0
-67,24,-26,2
-50,29,-35,-7
-30,33,-48,-20
-13,38,-59,-29
-5,43,-66,-36
-3,53,-68,-37
3,55,-68,-33
4,52,-66,-24
3,54,-64,-20
-20,61,-68,-14
-25,58,-72,-8
-32,50,-73,0
-42,36,-68,8
-49,27,-57,21
-54,27,-45,34
-46,28,-41,42
-45,27,-42,44
-46,25,-46,47
-50,23,-47,52
-56,24,-47,61
-43,33,-38,72
-29,44,-22,83
-25,53,-1,98
-43,59,16,109
-50,67,20,112
-30,65,16,110
-7,65,17,105
12,68,22,97
15,70,23,89
3,64,23,90
-8,54,23,96
-19,43,24,102
-20,39,24,112
-15,45,21,128
-11,47,14,145
-5,53,12,158
7,57,13,161
20,63,16,158
36,68,17,152
51,80,16,152
62,90,16,152
63,94,19,148
53,96,18,142
35,96,15,128
16,93,11,110
9,85,8,90
9,78,1,75
-18,76,3,60
-18,77,4,54
-7,76,4,58
5,78,11,64
9,80,20,74
-5,78,28,81
-9,75,36,88
7,79,45,98
25,90,58,116
30,103,69,125
37,116,73,131
45,134,76,142
53,148,72,148
58,155,64,147
56,149,61,141
53,140,61,124
50,128,62,96
43,118,65,65
28,115,70,35
6,111,66,7
21,105,54,-15
46,108,45,-20
68,119,43,-13
82,124,44,-2
93,130,51,14
101,139,64,29
113,147,79,45
109,155,89,68
80,155,87,83
54,150,79,91
40,149,64,99
25,137,43,107
16,125,25,118
12,118,12,128
15,112,-1,137
17,97,-11,146
24,85,-17,161
34,83,-15,175
46,86,-11,182
56,100,-7,190
69,115,-2,192
83,131,7,194
102,137,11,193
119,145,21,184
129,151,32,166
133,154,40,152
127,160,51,155
123,167,58,160
120,170,61,168
96,166,61,169
92,164,53,170
114,162,41,174
130,161,34,180
137,157,28,180
132,152,25,179
118,144,21,176
113,140,23,178
119,146,24,184
128,147,14,182
127,146,6,177
127,145,1,175
125,140,2,175
126,138,8,180
128,141,16,186
129,143,25,187
131,142,28,181
135,143,26,170
140,152,25,164
142,153,20,156
141,148,14,144
139,148,5,133
139,143,-5,124
141,135,-11,118
140,127,-13,109
136,121,-9,98
134,119,-9,90
131,113,-12,86
131,108,-16,90
134,104,-16,98
133,94,-18,102
124,77,-22,101
114,60,-28,92
99,51,-26,83
81,50,-18,78
65,52,-15,68
64,62,-13,63
77,73,-9,64
92,84,2,77
101,89,15,90
111,97,26,107
117,100,34,121
117,100,36,138
113,97,33,149
110,95,30,161
113,90,28,176
122,80,27,188
130,74,28,204
139,76,28,215
150,76,20,221
157,74,11,228
156,74,8,234
148,76,10,240
139,74,4,238
129,73,2,230
124,80,-2,220
126,88,-6,206
130,90,-8,196
135,93,-8,189
133,96,-5,187
135,99,-3,194
140,95,-6,195
146,98,-14,184
144,97,-25,160
138,95,-29,147
141,95,-30,141
143,94,-33,132
121,95,-35,129
111,103,-38,136
124,111,-36,149
138,130,-26,167
147,137,-19,170
159,138,-12,161
172,138,-4,159
176,142,5,167
175,145,12,175
169,146,18,175
168,143,23,180
166,136,24,184
163,137,25,190
158,141,23,198
155,136,20,204
157,132,19,213
151,129,17,217
148,129,15,219
148,129,11,222
145,131,6,224
142,132,8,221
137,137,21,223
134,140,36,232
127,138,42,241
119,131,42,242
121,128,41,237
127,130,40,228
132,134,34,218
127,126,21,210
111,113,4,209
91,104,-4,215
69,97,-8,219
42,97,-18,221
18,93,-29,224
4,88,-44,230
-5,87,-48,243
-13,91,-49,261
-18,86,-54,271
-23,85,-54,275
-27,83,-59,265
-25,76,-66,247
-16,68,-74,236
-12,60,-88,235
-9,51,-103,231
-7,42,-111,225
-2,32,-115,215
5,20,-124,202
6,5,-134,190
4,-6,-141,173
-7,-13,-144,160
-16,-19,-142,154
-20,-19,-133,148
-21,-8,-122,143
-22,0,-121,139
-19,7,-122,141
-9,12,-123,152
2,13,-121,161
17,18,-118,169
36,25,-115,176
47,25,-112,177
55,30,-103,176
53,35,-94,173
49,36,-78,180
47,27,-62,184
47,15,-54,181
45,19,-47,185
37,29,-45,196
23,33,-40,207
19,36,-31,214
15,32,-22,220
18,31,-12,231
25,27,-10,238
29,19,-9,244
26,16,-4,251
26,19,5,263
28,24,16,270
38,31,17,263
56,41,19,261
69,53,21,262
77,59,17,255
87,66,15,254
96,69,16,256
100,76,23,258
101,79,29,254
99,77,30,244
97,68,28,236
94,60,27,235
89,54,26,238
83,49,21,246
79,53,17,258
85,53,12,259
93,54,8,259
95,58,16,253
97,64,30,240
94,68,35,231
99,74,38,228
107,80,43,226
118,80,42,214
123,79,40,195
130,82,40,180
142,92,41,181
154,101,38,188
165,102,35,190
175,100,41,190
175,103,47,190
164,102,50,186
155,100,56,179
158,100,60,170
162,98,56,163
163,93,48,152
163,84,44,136
163,74,44,128
162,68,51,130
161,65,61,140
167,66,66,155
175,66,66,164
184,69,68,166
186,83,70,170
184,99,70,171
185,109,67,170
185,120,68,175
186,129,68,180
191,138,67,189
193,144,63,198
191,149,60,205
185,157,60,200
178,162,60,190
170,152,58,184
165,128,57,179
162,101,55,181
153,74,50,180
139,51,45,177
128,39,43,178
119,32,40,170
107,24,36,159
89,15,33,150
73,10,36,148
62,10,35,154
52,14,36,161
51,17,37,160
53,20,47,159
56,30,60,161
61,43,65,162
69,47,64,162
71,48,66,156
65,44,75,152
59,40,87,160
49,38,92,168
38,40,90,165
14,35,84,159
-4,25,77,157
-6,21,73,165
-1,23,73,176
13,28,76,180
30,44,80,185
40,51,84,181
44,53,87,171
44,58,89,160
36,67,89,156
31,73,86,153
23,77,87,156
20,82,86,163
18,86,89,166
19,87,88,158
25,88,88,145
29,88,87,137
29,91,88,132
30,98,84,126
38,103,74,119
52,103,66,112
69,107,63,105
85,124,59,107
96,137,48,106
105,143,39,105
111,144,33,108
109,143,30,106
108,141,31,96
105,140,33,90
101,139,35,85
103,140,41,85
105,142,47,77
101,139,50,69
93,129,47,69
88,125,44,79
91,127,42,88
103,131,39,92
116,136,43,97
127,136,54,97
132,136,56,90
137,139,55,86
134,148,55,91
128,162,59,101
128,175,72,111
127,188,89,122
124,194,103,127
125,191,114,138
124,173,114,151
124,156,105,160
123,150,99,167
120,152,95,176
112,159,94,184
105,158,96,185
114,161,103,183
128,170,114,184
138,177,128,184
139,174,137,189
134,164,139,193
130,159,141,195
129,161,142,201
127,158,135,208
122,154,124,209
116,151,119,209
112,147,114,215
107,146,107,220
99,145,104,218
96,148,114,219
93,150,125,222
86,149,132,230
76,151,140,239
71,148,147,239
73,146,150,246
70,150,156,260
54,142,162,267
33,129,172,271
12,119,170,272
-7,112,159,256
-21,105,146,239
-25,98,135,230
-11,90,128,221
2,85,122,214
13,94,118,212
13,102,109,202
18,99,102,188
27,91,94,180
38,89,88,172
42,82,85,149
39,65,87,120
19,53,84,99
-1,44,80,72
-25,38,81,52
-50,21,76,32
-78,1,68,16
-104,-15,60,-7
-121,-22,50,-34
-137,-32,38,-63
-152,-39,22,-95
-160,-44,-1,-128
-161,-52,-17,-152
-151,-63,-23,-164
-139,-74,-25,-174
-130,-82,-25,-179
-123,-77,-19,-183
-117,-70,-16,-192
-111,-61,-20,-202
-115,-57,-26,-204
-112,-60,-28,-196
-111,-66,-27,-177
-127,-73,-31,-167
-161,-79,-36,-164
-162,-82,-42,-160
-142,-83,-47,-155
-118,-79,-51,-152
-103,-75,-57,-160
-93,-77,-59,-169
-88,-90,-62,-167
-90,-109,-68,-161
-101,-129,-75,-154
-122,-144,-81,-148
-137,-157,-88,-155
-136,-169,-101,-169
-124,-179,-112,-180
-112,-188,-116,-180
-108,-193,-112,-183
-112,-196,-105,-188
-122,-194,-97,-189
-143,-184,-91,-182
-127,-170,-87,-178
-116,-164,-83,-179
-129,-168,-85,-172
-154,-186,-89,-159
-171,-195,-91,-153
-169,-193,-96,-157
-158,-186,-100,-165
-147,-174,-106,-172
-138,-165,-112,-175
-126,-155,-118,-175
-113,-144,-120,-164
-106,-135,-121,-147
-94,-126,-115,-130
-79,-114,-108,-117
-64,-104,-105,-112
-53,-101,-106,-109
-40,-100,-106,-110
-29,-97,-104,-115
-15,-92,-100,-120
-3,-85,-102,-126
8,-73,-103,-124
19,-61,-100,-114
30,-58,-96,-103
36,-53,-88,-101
34,-45,-81,-112
30,-44,-73,-125
24,-41,-55,-124
24,-31,-35,-119
32,-17,-22,-111
41,-4,-11,-91
53,13,1,-56
58,39,12,-20
58,50,27,5
41,54,47,25
51,64,68,44
64,69,84,53
63,78,95,56
65,81,98,62
78,84,99,69
87,89,96,73
82,97,94,76
76,106,96,73
77,108,103,70
75,108,108,71
69,103,110,70
34,89,113,71
15,77,113,71
-7,73,116,76
-19,81,118,84
-13,91,116,88
-9,101,116,88
-13,112,121,87
-10,126,121,92
-13,128,119,92
-19,125,124,97
-6,121,121,108
-2,117,112,115
-1,108,103,107
1,105,96,82
5,102,87,43
0,92,75,-5
-21,83,64,-55
-45,81,54,-95
-57,82,44,-127
-50,73,32,-152
-22,69,28,-166
18,66,22,-165
55,65,20,-156
84,63,18,-144
104,63,9,-135
113,67,-2,-123
118,70,-5,-107
126,81,1,-87
131,94,4,-62
133,100,2,-38
133,100,1,-17
133,91,0,-6
129,84,12,3
118,74,24,20
106,53,27,39
97,34,25,54
92,31,28,68
69,25,26,76
69,8,20,75
62,-24,16,65
38,-55,16,65
12,-80,15,70
-24,-102,12,67
-87,-129,8,62
-124,-150,4,66
-116,-158,-13,71
-119,-166,-33,77
-134,-180,-46,75
-154,-188,-52,55
-172,-191,-59,24
-182,-201,-72,-23
-193,-206,-83,-70
-202,-208,-95,-95
-209,-207,-113,-103
-208,-198,-129,-109
-195,-190,-137,-122
-186,-181,-134,-123
-151,-167,-123,-106
-123,-160,-107,-82
-104,-160,-93,-58
-109,-159,-78,-45
-121,-154,-70,-41
-134,-151,-63,-58
-129,-149,-58,-77
-128,-145,-59,-90
-113,-127,-59,-92
-84,-95,-58,-89
-53,-66,-60,-87
-17,-48,-73,-90
23,-42,-89,-101
54,-36,-104,-123
74,-31,-117,-154
87,-41,-127,-179
91,-58,-135,-193
87,-78,-136,-197
81,-85,-128,-189
54,-80,-116,-180
-10,-79,-104,-174
-72,-84,-85,-156
-115,-93,-66,-125
-162,-103,-57,-90
-205,-112,-58,-67
-197,-114,-55,-47
-175,-112,-55,-36
-150,-109,-55,-26
-125,-104,-55,-16
-99,-101,-50,-9
-69,-97,-38,-1
-36,-80,-30,8
-9,-59,-26,16
9,-41,-17,30
22,-20,-2,50
34,2,14,64
45,19,22,71
42,27,23,73
16,23,24,67
-5,12,19,58
-24,-11,8,55
-54,-43,-3,63
-88,-73,-9,76
-93,-84,-5,95
-87,-89,-2,108
-83,-85,11,115
-84,-75,24,130
-82,-66,30,150
-67,-58,33,159
-44,-46,39,164
-19,-33,42,161
5,-23,43,163
33,-9,43,169
61,8,44,172
80,15,43,169
100,18,40,171
118,19,36,175
139,13,36,176
139,2,37,172
145,-3,38,162
164,-1,40,147
174,-2,37,133
177,9,35,128
177,28,31,121
171,40,26,104
160,43,20,80
147,39,17,56
138,35,16,37
130,34,6,30
95,33,-7,33
81,31,-19,45
74,31,-19,62
58,32,-12,86
44,32,-4,112
39,43,16,130
35,59,35,143
39,71,50,159
52,84,66,172
53,95,84,181
45,95,97,176
23,99,104,171
17,102,105,165
23,100,108,169
31,102,110,181
39,97,107,190
31,91,106,190
45,80,106,185
61,75,107,190
65,69,104,197
68,69,101,204
71,68,90,205
73,66,77,200
67,65,66,186
62,64,63,171
57,66,64,164
56,68,62,159
62,73,62,153
96,80,62,146
120,95,68,150
130,105,70,152
131,117,70,162
124,132,73,176
123,150,82,189
124,158,87,196
128,158,93,203
115,157,102,214
126,161,110,224
146,167,121,229
154,170,129,236
151,167,129,245
150,159,120,244
151,156,109,238
160,153,100,224
175,153,97,217
181,148,95,214
178,139,81,206
178,138,76,196
172,145,77,188
165,150,74,187
166,163,77,198
161,179,86,211
159,191,96,221
166,200,111,226
177,218,130,240
191,235,148,252
203,238,160,261
216,242,179,283
227,254,196,314
236,265,204,335
240,273,215,346
239,282,228,350
239,294,238,358
245,310,245,378
255,322,242,397
269,331,244,412
283,352,258,429
296,368,267,438
304,380,278,440
308,389,294,442
313,387,306,444
318,390,309,444
326,398,312,444
335,403,313,447
338,415,318,453
337,420,320,456
335,421,318,457
332,426,323,461
332,437,330,464
340,457,340,468
352,473,345,471
365,487,349,482
373,496,352,488
377,501,352,483
380,511,348,476
388,524,343,473
396,527,336,471
403,529,335,476
408,536,335,479
412,534,325,475
418,526,319,474
424,525,327,484
426,521,328,491
427,521,327,493
427,521,324,492
428,520,319,488
426,513,311,481
420,514,305,474
411,518,297,462
405,522,291,451
405,521,289,443
407,524,288,436
405,525,288,431
401,522,280,425
400,522,275,419
400,525,268,406
399,520,260,395
401,515,256,395
409,508,251,395
414,505,246,397
416,500,241,399
414,492,234,404
410,489,228,411
404,487,228,412
391,487,232,410
380,493,239,414
372,499,241,419
369,495,240,416
370,490,238,418
372,486,238,422
366,486,237,419
355,479,231,409
349,467,221,395
349,457,215,383
349,449,213,373
345,446,216,369
337,447,216,361
331,444,218,357
326,438,216,355
323,433,209,345
316,426,194,323
307,419,185,300
305,410,180,289
309,407,179,284
307,405,177,273
306,403,168,263
302,393,150,252
292,375,131,235
266,357,124,214
235,344,131,194
203,323,137,174
171,299,137,158
142,280,128,142
114,263,113,119
79,236,97,96
25,211,87,70
-36,194,71,54
-92,173,51,41
-143,144,34,20
-185,115,26,-4
-215,91,19,-35
-241,68,14,-69
-277,47,15,-102
-309,26,19,-129
-335,8,19,-156
-350,-2,12,-179
-371,-20,1,-196
-403,-45,-6,-201
-419,-50,-12,-197
-419,-58,-25,-208
-408,-71,-33,-210
-391,-76,-32,-192
-365,-78,-30,-162
-328,-71,-26,-143
-295,-63,-24,-138
-267,-55,-25,-133
-250,-46,-27,-125
-237,-41,-28,-126
-236,-38,-31,-138
-235,-42,-42,-150
-224,-43,-51,-162
-217,-41,-57,-202
-207,-38,-66,-245
-181,-34,-73,-267
-149,-29,-77,-256
-119,-25,-77,-226
-92,-29,-72,-203
-66,-32,-64,-179
-44,-28,-67,-152
-26,-23,-72,-129
-11,-18,-73,-113
5,-13,-75,-97
24,0,-70,-80
37,8,-71,-66
47,9,-74,-41
57,11,-82,-9
62,19,-86,16
66,27,-89,29
75,38,-88,39
89,45,-87,46
109,49,-93,49
128,49,-94,46
147,49,-94,35
160,47,-92,29
168,43,-88,26
175,38,-85,29
179,32,-92,27
179,24,-111,10
181,19,-124,-4
182,19,-136,-15
184,24,-141,-11
189,24,-148,1
194,29,-149,16
197,34,-148,24
197,34,-143,31
200,37,-138,41
203,43,-130,55
204,46,-119,67
208,48,-112,80
218,55,-105,102
227,61,-100,121
231,61,-95,137
235,59,-89,149
237,59,-83,154
235,64,-75,160
234,67,-67,169
235,66,-60,179
238,68,-48,199
234,71,-37,222
230,73,-35,238
231,74,-31,247
233,80,-21,251
235,86,-11,253
239,95,-4,250
244,103,-4,247
250,109,-8,237
255,121,-10,227
255,124,-10,218
256,116,-9,212
264,112,-12,218
269,109,-19,217
273,109,-22,212
275,108,-32,200
279,108,-38,189
285,112,-41,180
290,111,-44,169
295,112,-35,168
299,122,-25,171
299,127,-21,173
295,119,-25,175
290,112,-26,180
290,111,-25,184
286,112,-21,183
277,118,-11,184
268,122,4,187
267,131,11,192
271,144,17,201
276,156,20,213
280,163,22,218
281,154,24,215
283,147,32,217
287,145,39,217
291,145,43,225
293,146,47,234
294,145,53,240
294,142,58,242
295,140,60,241
296,145,63,240
300,158,69,235
309,175,75,237
318,190,81,245
322,202,96,262
325,216,117,277
329,231,134,284
332,242,139,287
332,253,148,298
328,261,153,304
329,269,155,301
330,275,159,299
331,283,167,299
324,291,174,302
313,298,178,310
306,307,183,319
304,311,187,327
308,311,188,331
312,312,186,334
313,319,183,345
312,325,184,356
309,331,185,361
302,333,189,355
300,335,195,355
299,337,203,366
296,343,213,380
289,347,218,390
280,345,217,398
271,342,212,404
265,338,207,412
251,331,196,420
233,324,184,427
222,322,177,429
222,319,177,422
224,317,179,417
219,319,177,419
209,317,173,426
192,313,171,430
163,315,171,438
131,313,169,440
105,297,158,437
75,276,149,437
26,251,139,431
-54,234,132,433
-173,212,117,428
-333,171,92,416
-492,112,65,397
-605,51,42,372
-688,-8,26,344
-783,-66,14,311
-845,-113,3,270
-847,-141,-10,219
-827,-159,-29,158
-809,-186,-57,85
-789,-210,-88,6
-764,-229,-116,-77
-740,-254,-141,-155
-718,-282,-163,-219
-703,-306,-182,-293
-679,-324,-205,-367
-641,-333,-221,-418
-614,-345,-238,-457
-611,-360,-251,-489
-614,-376,-252,-502
-608,-391,-242,-496
-597,-402,-231,-480
-584,-418,-226,-464
-533,-430,-219,-458
-473,-439,-211,-452
-428,-436,-196,-425
-386,-422,-180,-394
-337,-390,-165,-360
-280,-358,-153,-330
-236,-333,-137,-292
-204,-314,-115,-242
-179,-296,-97,-191
-156,-272,-83,-134
-130,-240,-76,-79
-104,-214,-66,-36
-82,-200,-56,2
-58,-187,-40,33
-36,-174,-25,55
-8,-149,-20,76
14,-131,-17,91
31,-117,-12,110
46,-101,-3,134
59,-87,3,152
70,-72,5,161
86,-48,16,171
98,-26,29,183
101,-10,34,196
106,6,33,205
115,23,32,213
121,33,37,218
123,37,43,221
128,36,45,225
135,36,48,238
142,38,57,252
150,39,61,261
162,42,68,269
176,51,79,274
183,60,84,280
185,66,89,281
186,76,102,278
188,81,111,273
192,77,108,263
197,86,105,260
202,93,102,254
210,94,99,243
217,91,98,234
223,91,99,234
226,93,96,241
229,96,90,249
236,98,87,251
241,101,91,257
248,107,95,267
258,121,94,267
264,136,96,260
262,150,102,255
251,164,107,250
237,176,113,249
225,186,116,244
219,191,114,237
217,196,112,229
220,206,117,227
220,215,119,223
225,220,118,219
229,230,118,221
228,237,117,228
221,237,117,235
214,236,115,239
213,237,107,232
217,236,100,224
219,234,97,223
215,234,98,218
207,230,100,207
203,229,100,195
201,225,99,183
198,222,89,167
200,222,82,151
200,213,80,145
199,202,73,152
196,196,68,160
192,196,69,160
186,197,72,154
182,197,66,143
177,194,56,136
175,186,46,126
176,179,45,115
174,170,47,105
175,160,44,96
178,147,38,89
178,131,33,82
175,117,28,74
170,108,23,67
161,104,15,60
153,97,9,53
150,89,2,48
150,72,3,45
156,70,10,52
160,79,10,66
159,81,2,70
155,78,-5,67
152,72,-12,61
154,69,-10,54
158,74,-6,55
161,85,-5,57
156,94,-3,53
150,94,2,44
148,88,6,29
148,82,14,18
148,77,20,7
150,77,19,-4
146,78,11,-16
136,75,0,-24
127,68,-12,-29
121,60,-19,-27
114,51,-23,-18
112,46,-30,-6
112,44,-39,-1
110,43,-51,1
111,43,-69,4
114,34,-99,0
116,23,-126,-6
116,13,-150,-2
116,-2,-176,2
113,-19,-208,-11
111,-34,-240,-26
111,-54,-270,-37
105,-75,-290,-47
96,-99,-316,-60
83,-124,-347,-70
66,-144,-369,-81
47,-164,-383,-103
28,-182,-394,-117
6,-210,-404,-128
-20,-241,-405,-148
-43,-261,-399,-167
-75,-280,-388,-194
-129,-301,-375,-218
-188,-317,-358,-241
-246,-324,-342,-256
-321,-345,-332,-255
-427,-361,-319,-240
-554,-375,-297,-230
-694,-394,-273,-228
-797,-420,-258,-221
-891,-440,-246,-214
-963,-458,-229,-221
-1000,-469,-210,-229
-1035,-464,-195,-236
-1080,-456,-180,-240
-1088,-451,-167,-252
-1048,-439,-151,-278
-981,-423,-139,-302
-915,-405,-126,-313
-827,-389,-115,-337
-705,-364,-101,-373
-584,-330,-89,-403
-488,-292,-81,-438
-412,-258,-71,-465
-355,-237,-63,-479
-308,-223,-57,-483
-267,-201,-54,-482
-233,-177,-50,-462
-208,-157,-52,-419
-188,-139,-55,-376
-169,-118,-50,-329
-145,-90,-40,-279
-116,-68,-25,-231
-89,-53,-2,-184
-62,-42,18,-138
-39,-31,35,-97
-21,-23,50,-63
-6,-9,66,-28
0,7,79,7
8,14,90,38
15,14,103,64
24,21,111,92
33,38,124,120
46,50,130,140
63,68,138,163
78,80,146,183
87,84,146,200
84,82,145,211
75,83,147,221
69,86,150,227
65,83,154,235
64,76,157,240
71,78,163,250
79,85,170,262
79,81,171,269
87,81,173,284
93,84,174,296
100,94,172,304
111,104,168,306
121,113,169,308
130,129,179,317
141,151,189,327
152,165,189,334
160,161,176,328
161,155,165,319
154,156,164,322
144,156,170,328
131,151,175,326
124,146,177,324
121,144,174,324
116,145,166,322
118,154,169,320
135,172,184,328
148,188,200,339
153,190,210,345
151,187,215,350
150,185,212,354
150,186,205,352
151,191,201,346
153,195,202,342
153,188,206,332
154,177,211,320
152,166,213,319
155,158,216,322
159,154,220,328
165,152,211,333
172,158,203,340
177,161,201,345
173,153,200,335
166,145,202,322
162,137,203,322
161,131,195,330
161,130,186,335
159,133,180,329
156,135,173,313
160,136,166,301
160,139,159,288
158,140,152,278
159,146,149,270
161,154,148,262
163,167,151,252
172,179,161,248
181,191,173,250
187,202,181,254
190,207,188,261
192,216,196,266
197,225,202,264
205,227,201,263
211,231,200,263
207,234,198,260
198,234,201,259
190,239,206,254
177,241,212,251
154,242,219,253
137,239,219,253
130,238,215,255
121,236,213,256
110,237,211,256
100,241,210,254
95,242,206,252
88,245,198,254
82,245,192,255
78,243,187,255
64,240,182,249
41,240,174,242
15,245,164,237
-26,245,152,232
-76,237,144,230
-144,219,133,231
-196,209,124,239
-222,196,125,241
-232,185,128,236
-231,182,125,232
-223,186,117,234
-215,190,108,229
-211,189,106,222
-216,186,101,219
-213,178,95,222
-208,165,86,224
-184,153,84,233
-152,140,86,238
-127,132,85,247
-110,131,80,257
-105,126,71,248
-99,123,65,241
-88,118,68,240
-81,120,71,236
-78,114,66,229
-79,101,63,215
-107,87,62,204
-111,73,57,204
-98,64,53,204
-100,57,47,201
-137,45,41,198
-190,36,37,197
-252,21,33,193
-314,-3,23,188
-350,-20,10,179
-371,-35,0,169
-408,-58,-7,152
-455,-78,-20,129
-477,-93,-36,100
-483,-109,-42,80
-482,-119,-43,63
-465,-122,-47,34
-435,-118,-52,-25
-411,-125,-64,-118
-390,-134,-74,-224
-361,-144,-83,-334
-326,-153,-91,-418
-296,-163,-104,-485
-264,-169,-113,-555
-235,-169,-124,-612
-213,-163,-126,-650
-193,-161,-127,-696
-169,-161,-121,-728
-144,-155,-109,-731
-120,-150,-99,-729
-99,-147,-95,-714
-76,-138,-93,-676
-50,-124,-88,-623
-20,-113,-74,-570
14,-102,-60,-515
43,-93,-52,-455
70,-85,-45,-396
95,-82,-37,-339
116,-80,-27,-285
130,-78,-17,-234
145,-79,-3,-183
159,-74,10,-131
173,-65,18,-81
180,-55,24,-35
188,-41,29,5
196,-22,36,39
202,3,51,68
206,25,65,91
210,42,74,112
214,60,77,133
225,79,72,146
237,92,74,154
249,105,83,162
258,115,84,171
267,118,87,191
276,123,90,214
282,129,98,224
293,143,107,231
301,158,112,237
306,170,116,248
310,175,122,259
309,181,130,265
307,188,128,269
305,190,130,278
305,192,135,286
303,194,134,289
296,199,128,299
292,202,124,305
297,210,121,304
302,220,121,305
303,231,124,309
303,237,128,311
307,237,127,311
315,237,128,316
328,244,133,325
339,253,140,331
346,258,145,334
346,267,151,339
344,275,152,344
338,280,153,349
333,284,157,357
329,289,161,369
324,289,159,385
318,285,159,398
313,281,165,407
312,280,171,417
310,283,176,420
311,283,179,420
312,285,184,430
311,283,185,446
305,280,186,460
299,278,187,469
297,273,184,472
297,274,178,474
301,272,173,475
310,277,183,481
320,287,193,490
328,296,201,495
330,303,201,494
327,305,201,487
324,303,202,487
326,296,197,492
330,293,194,491
335,290,192,485
336,281,196,478
337,277,194,467
341,269,185,455
346,260,177,447
351,259,167,442
348,255,154,435
345,248,142,428
341,236,133,420
338,223,132,415
330,213,132,403
323,205,132,382
317,202,129,366
307,201,126,348
300,194,127,332
292,185,130,324
286,179,136,325
281,170,141,319
274,161,142,307
265,158,137,296
254,157,130,285
239,158,127,273
229,160,128,259
226,162,130,248
227,172,128,241
226,177,122,239
229,173,116,237
233,165,112,235
233,154,108,228
223,143,101,224
212,136,93,220
205,138,88,222
203,139,84,227
199,146,85,240
192,150,85,256
184,148,82,262
174,143,74,265
149,134,69,270
121,130,68,273
94,127,61,274
53,114,58,278
8,104,59,287
-49,100,62,291
-128,82,56,291
-227,47,44,291
-337,1,34,289
-467,-51,28,287
-554,-99,26,290
-620,-145,23,291
-689,-185,19,292
-748,-209,17,295
-790,-223,8,304
-821,-232,-4,314
-872,-241,-14,324
-914,-257,-23,325
-925,-270,-36,324
-925,-281,-51,314
-926,-289,-64,300
-897,-297,-82,285
-831,-306,-104,267
-757,-315,-122,251
-680,-308,-134,237
-603,-295,-151,223
-533,-283,-182,207
-464,-265,-209,189
-406,-241,-229,157
-352,-220,-253,79
-303,-210,-280,-35
-262,-202,-306,-162
-225,-192,-331,-308
-189,-191,-349,-430
-160,-192,-360,-488
-137,-197,-369,-513
-117,-198,-380,-544
-95,-192,-380,-570
-77,-182,-372,-585
-51,-173,-366,-612
-27,-161,-351,-626
3,-154,-326,-618
30,-154,-304,-603
53,-150,-284,-590
75,-144,-271,-589
96,-133,-262,-589
110,-131,-252,-574
117,-137,-242,-549
116,-143,-230,-510
112,-155,-222,-460
110,-157,-209,-404
110,-145,-191,-353
116,-125,-170,-296
123,-101,-154,-239
139,-82,-150,-189
159,-64,-143,-145
181,-49,-132,-113
198,-37,-123,-83
214,-33,-115,-61
227,-26,-108,-40
243,-14,-96,-20
257,-3,-84,-4
261,-3,-78,13
260,-5,-72,30
260,-6,-66,43
263,-2,-60,60
271,0,-57,74
273,1,-53,88
273,1,-51,98
272,0,-46,101
272,5,-39,106
270,13,-24,113
269,21,-6,131
269,37,16,154
267,48,29,168
266,52,38,174
268,59,38,185
266,63,34,191
261,62,29,194
262,66,31,200
266,76,37,206
272,81,32,211
278,87,28,220
279,85,28,225
277,89,30,238
271,90,38,255
268,88,44,273
265,82,47,284
264,77,52,282
265,64,60,279
267,56,65,275
271,51,61,279
271,48,51,282
274,48,49,287
278,50,50,296
280,39,46,307
274,21,42,314
265,10,39,323
253,6,43,333
238,2,48,336
229,-2,48,338
224,-8,41,341
218,-14,28,342
213,-19,12,339
210,-26,3,334
210,-37,-3,330
211,-41,-6,320
223,-37,-1,313
235,-27,3,308
244,-23,6,302
249,-21,13,301
251,-13,20,305
251,0,18,311
256,10,12,310
259,16,10,298
261,27,13,281
256,39,20,268
253,41,28,257
253,36,34,246
257,39,38,238
262,50,36,229
269,57,28,217
275,65,29,212
276,68,28,212
273,69,30,216
272,72,34,220
271,79,31,217
267,91,30,209
266,103,36,204
264,113,42,204
253,113,35,199
234,115,30,196
218,116,30,201
199,119,31,204
182,118,31,210
174,120,34,217
167,123,36,216
155,120,35,215
148,117,32,206
142,110,29,191
128,101,24,171
111,89,23,154
85,83,28,145
60,83,38,144
46,89,42,147
37,96,40,151
15,99,31,152
-14,103,26,155
-42,107,26,159
-72,105,25,164
-121,90,25,157
-180,75,24,148
-249,59,16,140
-311,45,13,131
-354,29,11,113
-381,17,10,97
-411,0,6,80
-439,-19,-7,67
-467,-43,-18,54
-491,-62,-28,37
-500,-80,-36,20
-494,-96,-40,7
-505,-114,-45,-10
-517,-125,-54,-27
-511,-127,-63,-48
-480,-113,-68,-66
-445,-94,-72,-85
-414,-83,-77,-106
-378,-76,-81,-127
-341,-68,-84,-142
-305,-67,-88,-156
-262,-69,-95,-172
-212,-59,-98,-188
-163,-44,-101,-204
-120,-29,-110,-225
-86,-16,-117,-245
-57,-11,-130,-264
-26,-4,-147,-275
4,8,-159,-273
30,19,-166,-268
52,25,-171,-283
75,28,-177,-325
95,33,-182,-369
118,37,-187,-408
141,50,-196,-468
162,63,-204,-521
180,79,-201,-545
191,99,-196,-565
196,111,-197,-604
199,118,-194,-632
204,125,-188,-638
210,139,-174,-639
212,150,-150,-627
209,154,-126,-600
213,153,-103,-565
218,157,-86,-518
222,158,-76,-466
227,157,-66,-411
238,158,-55,-349
244,168,-41,-293
248,184,-34,-244
250,197,-28,-198
250,200,-25,-156
248,205,-20,-117
242,211,-6,-78
240,213,11,-36
242,218,24,6
247,222,36,36
255,223,48,56
261,227,59,74
269,242,68,94
275,260,84,111
287,278,104,124
296,297,119,137
299,308,128,152
305,314,132,171
319,317,143,194
333,321,152,222
338,326,162,249
343,331,172,266
355,338,179,281
367,345,184,296
373,354,194,308
375,361,205,315
376,365,218,322
374,368,225,329
373,379,234,340
371,387,242,348
376,389,247,354
384,391,247,358
391,385,247,361
394,377,249,361
393,370,248,361
384,363,242,362
371,356,237,363
362,344,236,366
359,335,232,368
363,324,220,363
363,319,219,363
363,320,221,370
368,332,221,387
375,339,215,397
385,337,217,404
393,328,220,405
392,318,226,401
386,304,229,389
376,286,225,376
370,267,217,372
366,241,208,373
360,210,200,370
348,180,197,364
329,146,194,358
307,113,189,353
287,89,175,349
269,75,161,346
251,56,145,338
240,31,132,326
233,20,124,318
224,15,113,307
210,13,101,300
189,9,91,291
167,13,83,287
138,19,78,284
100,22,73,276
40,17,64,262
-9,6,52,251
-54,-16,41,243
-103,-34,36,242
-152,-48,32,247
-197,-65,22,251
-270,-93,10,248
-337,-114,2,248
-375,-130,-7,254
-401,-151,-18,258
-445,-181,-31,251
-503,-209,-43,236
-542,-217,-54,218
-565,-215,-72,201
-603,-221,-91,178
-634,-236,-103,158
-633,-251,-104,145
-603,-267,-108,140
-562,-274,-113,143
-531,-280,-124,146
-522,-286,-133,143
-517,-277,-136,139
-499,-254,-135,132
-470,-241,-138,112
-434,-240,-143,96
-399,-249,-145,89
-361,-252,-141,95
-334,-251,-141,108
-306,-246,-145,108
-272,-232,-148,97
-241,-213,-141,86
-205,-194,-136,80
-170,-177,-140,72
-134,-158,-147,56
-109,-131,-142,34
-76,-101,-131,12
-38,-79,-130,-23
-5,-67,-138,-62
17,-60,-153,-109
32,-51,-166,-191
39,-42,-173,-280
50,-37,-176,-353
57,-33,-179,-429
63,-35,-183,-505
65,-26,-178,-556
65,-14,-159,-573
75,-13,-136,-577
86,-10,-120,-578
90,-2,-109,-567
92,5,-104,-539
99,23,-104,-483
109,41,-104,-424
123,53,-106,-380
135,57,-106,-340
147,70,-99,-289
159,88,-89,-248
171,103,-73,-216
186,110,-55,-187
199,111,-38,-160
206,115,-25,-128
215,123,-13,-100
223,128,-6,-74
231,129,1,-48
242,137,12,-22
249,146,16,-9
252,161,25,-1
255,179,34,5
255,191,42,13
259,197,49,21
258,193,49,26
255,185,56,30
259,179,70,37
264,177,76,51
273,180,80,67
282,189,88,85
287,202,90,101
298,219,97,116
313,235,113,141
320,247,132,163
319,254,144,180
320,260,154,199
321,264,161,217
322,267,166,233
319,273,169,254
319,280,164,268
318,283,155,281
317,282,149,299
317,283,143,317
312,288,131,333
306,292,113,340
305,289,105,338
305,290,104,339
306,291,100,341
307,288,94,341
311,281,91,339
318,273,91,335
324,264,92,324
329,258,96,318
325,256,95,317
312,256,87,311
298,249,74,301
290,236,66,291
284,221,63,284
279,208,64,282
271,200,64,270
263,197,56,248
255,193,46,228
247,183,36,217
238,166,33,218
218,146,31,222
187,131,30,230
149,118,24,239
107,100,20,240
66,80,15,239
20,57,9,239
-32,30,8,239
-81,-1,9,238
-160,-43,15,239
-265,-94,15,238
-357,-144,9,232
-451,-187,5,229
-525,-213,-3,231
-562,-235,-16,228
-573,-252,-25,218
-563,-260,-33,199
-553,-266,-39,167
-552,-268,-30,144
-554,-267,-25,134
-543,-264,-23,115
-507,-260,-24,100
-462,-259,-22,89
-425,-255,-24,82
-404,-247,-28,77
-382,-231,-25,70
-357,-214,-22,60
-341,-198,-26,53
-321,-174,-23,51
-290,-151,-22,49
-260,-134,-19,43
-236,-117,-13,38
-218,-106,-10,35
-204,-106,-13,26
-191,-105,-16,16
-176,-92,-17,8
-153,-79,-20,0
-131,-66,-26,-4
-109,-53,-34,-13
-97,-45,-43,-32
-88,-40,-52,-60
-78,-35,-61,-88
-64,-28,-63,-113
-57,-19,-69,-148
-48,-14,-80,-188
-36,-10,-88,-221
-16,-2,-91,-250
5,3,-97,-286
20,4,-105,-321
32,4,-122,-343
42,10,-153,-350
52,17,-175,-346
68,24,-187,-347
90,38,-196,-351
110,45,-208,-362
126,54,-213,-383
141,66,-206,-410
150,79,-197,-425
154,87,-189,-421
157,93,-179,-400
154,86,-173,-371
155,68,-163,-332
151,57,-147,-284
143,54,-129,-239
134,46,-121,-206
132,44,-112,-173
136,43,-100,-145
142,47,-89,-115
143,51,-77,-84
139,61,-63,-55
134,71,-46,-33
136,77,-26,-14
138,80,-12,4
140,84,0,18
146,92,17,36
153,100,35,56
164,111,55,82
167,120,74,109
158,128,93,133
149,139,109,153
144,153,119,169
146,162,127,183
147,165,133,195
140,170,141,215
128,177,149,237
117,174,152,246
114,175,154,258
123,179,150,272
133,187,149,284
141,204,156,300
143,210,162,312
139,209,164,320
133,212,165,329
124,214,173,339
120,213,182,355
119,219,195,368
119,222,198,369
118,225,201,375
118,232,200,382
119,230,196,379
113,220,195,376
104,212,194,374
96,203,195,369
86,184,195,360
72,165,195,356
45,143,198,353
2,112,199,360
-47,81,202,369
-91,55,203,372
-138,17,195,366
-201,-22,188,369
-288,-61,187,378
-392,-108,187,380
-492,-160,184,379
-571,-200,179,388
-606,-233,173,394
-633,-257,171,396
-646,-271,177,397
-644,-270,179,396
-659,-268,173,398
-696,-266,164,396
-693,-256,156,395
-665,-235,150,396
-624,-215,140,399
-572,-196,132,408
-528,-176,124,424
-500,-152,118,437
-475,-139,114,445
-445,-136,114,448
-416,-136,119,461
-395,-141,124,474
-389,-148,126,488
-381,-149,118,499
-360,-151,101,500
-331,-160,83,493
-309,-157,70,489
-299,-156,57,480
-289,-157,54,478
-287,-156,44,484
-281,-149,28,490
-261,-132,14,492
-238,-108,-1,489
-217,-97,-16,481
-220,-103,-25,465
-197,-93,-28,453
-149,-89,-39,437
-101,-101,-59,418
-62,-111,-75,401
-32,-107,-89,388
-5,-99,-106,379
21,-99,-119,369
39,-97,-128,363
52,-100,-138,348
64,-100,-142,322
77,-100,-151,281
86,-95,-157,238
98,-88,-165,181
110,-85,-175,123
115,-88,-188,73
115,-83,-194,28
118,-73,-200,-29
127,-58,-205,-88
134,-39,-205,-168
137,-19,-203,-277
140,-1,-195,-361
145,11,-188,-398
152,22,-178,-409
156,36,-171,-409
158,48,-154,-398
157,56,-129,-372
161,61,-109,-337
169,71,-86,-298
173,80,-65,-261
173,87,-49,-233
177,97,-31,-209
178,105,-16,-185
178,111,-3,-164
180,119,8,-139
183,126,13,-107
189,137,19,-76
199,147,27,-53
208,158,43,-34
216,169,58,-19
222,171,64,-7
231,177,69,6
237,187,77,14
241,199,84,28
247,210,85,38
253,224,92,49
256,233,104,58
263,241,130,68
275,251,155,86
291,264,170,106
299,276,179,125
304,287,186,139
309,297,191,154
324,308,197,169
342,316,209,184
354,321,223,200
366,330,234,219
374,342,241,238
379,350,251,257
384,361,261,277
390,362,270,303
397,365,273,332
402,369,268,352
409,376,262,359
410,380,262,356
413,381,268,357
421,379,278,363
425,373,286,369
427,371,285,373
430,369,279,374
433,373,273,373
434,372,264,371
430,368,256,369
428,366,256,372
425,366,256,378
419,371,255,389
417,375,248,395
415,379,243,394
412,381,238,386
409,378,236,375
408,371,232,367
407,368,224,362
405,361,217,358
401,359,212,362
399,361,212,362
397,371,212,367
389,379,203,366
377,377,195,358
371,373,190,353
369,372,182,352
362,372,167,348
350,372,162,341
334,371,158,329
320,370,153,319
309,363,147,313
301,357,143,312
290,348,140,308
283,334,138,306
277,332,138,310
271,335,131,310
265,333,126,302
256,324,128,294
247,315,129,291
242,308,130,285
229,300,130,278
212,294,134,279
190,283,136,284
170,274,136,287
145,270,134,289
120,265,133,288
93,252,132,289
58,237,133,287
20,219,134,287
-41,195,135,290
-133,161,135,292
-240,127,136,295
-332,87,139,297
-413,36,148,292
-479,-7,157,298
-521,-30,162,304
-549,-46,161,303
-582,-69,155,306
-603,-88,150,310
-595,-95,148,314
-564,-97,150,317
-520,-89,159,323
-481,-77,161,331
-445,-64,161,329
-414,-52,160,326
-396,-51,155,326
-383,-61,145,324
-365,-77,130,322
-351,-84,110,325
-335,-88,77,325
-307,-94,41,323
-271,-98,11,320
-234,-98,-9,319
-195,-93,-20,316
-167,-96,-31,308
-137,-109,-49,294
-108,-119,-68,269
-80,-127,-89,237
-58,-137,-110,209
-50,-153,-125,175
-43,-156,-136,135
-33,-148,-142,101
-20,-135,-145,76
-7,-121,-153,55
5,-109,-158,39
15,-104,-156,22
26,-97,-144,3
34,-92,-129,-27
37,-99,-121,-56
40,-107,-117,-83
42,-113,-115,-100
47,-108,-113,-103
43,-100,-108,-97
38,-96,-100,-86
39,-88,-88,-73
45,-78,-71,-66
51,-71,-56,-66
65,-53,-38,-59
79,-41,-26,-48
99,-32,-12,-25
121,-16,5,3
134,1,24,28
140,10,40,48
146,18,52,62
149,24,61,75
153,29,73,87
156,37,81,94
161,48,91,102
168,65,106,114
175,81,120,130
186,103,135,148
198,121,142,161
208,128,145,166
217,133,149,174
228,140,155,189
239,150,163,205
252,165,172,218
264,183,182,227
274,197,193,231
281,216,203,239
283,231,203,252
289,240,202,267
300,248,203,285
310,259,206,300
318,262,210,306
329,262,220,310
336,268,227,311
334,276,230,318
329,278,226,325
326,277,222,333
323,280,219,337
324,293,221,342
330,299,220,343
335,305,221,348
338,303,224,350
338,298,227,355
334,290,227,355
336,285,228,356
335,286,229,361
333,284,231,363
337,288,233,367
344,296,234,370
348,295,230,373
351,292,224,376
353,286,210,380
354,283,200,378
358,284,198,384
364,287,200,394
370,288,199,391
373,288,195,392
377,289,182,399
377,284,168,405
368,278,158,406
358,273,156,401
354,273,157,399
353,278,158,395
356,283,164,393
361,287,165,386
364,291,163,385
364,296,158,388
361,299,152,391
355,300,147,391
347,306,139,384
340,308,127,375
334,302,115,366
329,293,115,356
329,288,120,340
332,292,133,325
335,298,147,320
337,308,156,319
334,312,158,320
327,311,155,322
323,304,152,324
320,293,148,326
317,289,140,325
320,289,130,325
319,295,123,331
311,298,117,333
305,293,116,327
303,289,121,322
301,286,119,316
299,284,115,316
297,284,118,321
297,286,119,334
297,283,118,339
296,279,111,336
297,276,107,328
297,283,107,318
297,285,107,308
294,285,111,300
286,282,112,296
274,278,114,298
263,269,108,301
246,259,102,306
223,247,97,306
204,237,92,296
183,230,90,284
160,210,86,264
122,185,83,249
64,159,81,233
5,142,83,225
-60,125,83,225
-134,113,83,233
-212,105,85,243
-284,86,83,249
-365,58,83,250
-445,32,86,245
-491,8,81,236
-509,-19,71,233
-525,-43,64,236
-546,-64,50,228
-562,-80,34,215
-558,-95,21,196
-539,-116,-1,182
-517,-133,-22,170
-493,-145,-40,161
-465,-157,-58,157
-436,-167,-76,158
-399,-173,-93,161
-368,-180,-110,156
-349,-192,-124,144
-331,-200,-132,140
-307,-205,-141,142
-284,-213,-152,141
-262,-223,-157,137
-245,-234,-159,128
-229,-237,-150,130
-210,-238,-145,133
-194,-233,-146,135
-179,-229,-154,131
-162,-217,-159,135
-146,-209,-169,134
-132,-203,-168,131
-118,-195,-168,123
-106,-195,-170,107
-96,-201,-171,93
-91,-204,-170,86
-90,-209,-170,78
-92,-208,-168,71
-89,-208,-172,69
-78,-201,-174,74
-66,-188,-173,78
-60,-180,-169,78
-51,-175,-165,77
-38,-169,-166,73
-17,-161,-168,72
4,-151,-170,65
22,-140,-177,54
31,-136,-180,42
39,-134,-180,38
50,-125,-178,41
62,-109,-176,50
76,-92,-176,61
90,-72,-178,63
104,-51,-175,63
115,-37,-171,58
126,-22,-161,50
132,-12,-149,44
138,-5,-133,41
141,2,-122,44
147,12,-114,48
157,19,-108,48
165,28,-100,50
170,34,-97,50
175,39,-93,45
180,48,-86,39
182,58,-74,39
182,66,-59,45
182,72,-45,55
187,79,-32,65
197,79,-24,71
205,82,-14,76
206,88,-9,82
208,94,-2,82
215,109,4,81
223,118,8,80
229,122,6,83
235,126,4,91
241,129,0,101
245,126,2,100
245,122,10,94
249,119,12,89
252,114,7,87
256,110,2,82
264,112,0,79
270,118,2,80
275,123,1,80
277,125,-1,77
275,138,2,78
269,149,3,75
262,160,10,77
250,157,12,75
237,141,13,61
230,138,20,53
228,144,27,55
237,154,31,64
245,159,33,66
254,169,39,70
259,177,43,77
264,183,45,78
266,188,41,79
266,184,38,80
266,178,42,85
263,171,39,86
260,165,34,77
256,164,32,62
252,155,27,42
251,147,20,32
251,138,8,29
249,136,-2,32
245,136,-10,29
241,137,-14,28
236,133,-19,23
233,129,-18,20
230,127,-11,22
222,120,-3,23
215,116,5,24
209,111,11,18
206,110,19,16
204,116,21,25
202,112,22,34
199,112,23,40
199,109,21,40
193,105,25,38
184,102,35,30
179,105,51,25
178,107,65,28
184,110,79,32
194,116,98,36
203,119,112,40
208,123,122,45
215,134,126,52
215,137,123,57
210,140,123,64
206,147,128,74
204,152,126,84
201,156,124,92
199,162,120,99
199,158,114,101
195,154,116,104
193,154,119,108
191,155,125,114
189,170,135,126
179,185,137,136
170,179,133,142
157,166,130,153
139,158,135,166
121,152,140,171
100,144,141,172
84,146,142,175
72,149,143,174
60,147,140,168
46,146,142,163
34,151,145,163
24,149,143,158
17,145,140,156
15,141,138,154
14,138,137,149
13,137,134,144
12,136,133,139
10,138,133,136
10,147,136,140
7,151,129,144
3,148,113,147
1,141,100,143
1,139,95,135
-2,139,97,122
-3,140,96,111
-3,140,86,112
-4,135,72,117
-6,130,61,119
-13,119,52,114
-13,115,46,115
-3,112,44,108
12,113,42,99
23,111,36,87
23,109,31,70
18,110,30,60
19,114,29,53
24,114,22,51
31,114,18,53
42,116,19,59
48,121,21,62
49,120,23,50
53,116,29,31
62,108,24,11
67,88,7,-11
66,65,-6,-32
60,44,-12,-51
51,24,-16,-56
44,5,-22,-56
45,-10,-30,-66
52,-27,-33,-77
60,-46,-36,-84
62,-72,-43,-82
63,-100,-54,-81
65,-119,-63,-85
67,-130,-74,-88
68,-142,-86,-93
64,-152,-103,-103
59,-162,-120,-116
49,-179,-132,-122
20,-194,-133,-127
-5,-207,-129,-131
-21,-218,-125,-133
-32,-224,-124,-135
-54,-227,-131,-129
-87,-227,-140,-120
-125,-231,-148,-118
-158,-231,-149,-114
-183,-232,-152,-109
-194,-231,-153,-109
-206,-218,-150,-114
-219,-206,-147,-119
-238,-201,-148,-125
-262,-199,-146,-124
-273,-191,-142,-122
-272,-183,-140,-122
-266,-182,-147,-128
-255,-183,-157,-127
-239,-176,-160,-128
-220,-170,-154,-131
-201,-173,-152,-138
-180,-178,-154,-141
-161,-180,-156,-141
-153,-175,-156,-141
-152,-172,-154,-142
-149,-166,-150,-143
-141,-149,-136,-146
-131,-130,-129,-151
-119,-118,-121,-156
-110,-114,-111,-170
-99,-113,-100,-187
-89,-115,-95,-204
-88,-120,-95,-215
-86,-120,-88,-218
-78,-115,-77,-220
-66,-104,-68,-220
-60,-93,-60,-213
-56,-86,-57,-210
-53,-84,-51,-207
-46,-76,-40,-193
-40,-68,-34,-182
-31,-59,-31,-167
-23,-50,-25,-146
-21,-58,-31,-132
-16,-63,-39,-118
-7,-55,-40,-103
-7,-46,-32,-87
-12,-35,-25,-69
-10,-24,-19,-54
-3,-20,-15,-41
9,-13,-12,-31
16,-3,-16,-26
21,-3,-16,-21
30,-11,-18,-17
43,-12,-18,-10
51,-12,-20,-1
53,-17,-23,-2
57,-23,-22,-7
61,-26,-22,-10
63,-24,-26,-14
61,-16,-28,-24
60,-13,-33,-46
61,-15,-33,-63
66,-9,-25,-66
73,3,-15,-70
74,12,-16,-75
72,24,-20,-72
69,30,-22,-71
71,39,-17,-68
69,47,-9,-62
66,51,0,-51
59,50,11,-35
56,53,25,-16
53,56,37,1
49,56,47,15
41,57,56,27
37,53,61,25
39,49,68,25
43,45,74,21
45,49,76,17
45,51,72,11
41,52,70,9
30,50,72,4
24,48,68,1
23,47,59,-5
26,51,62,-5
27,59,63,1
17,58,64,6
2,56,70,10
-16,60,76,20
-36,69,78,35
-62,67,77,47
-82,60,77,60
-91,57,77,72
-94,65,76,78
-95,68,80,82
-97,63,85,82
-101,63,91,87
-100,68,92,80
-90,73,98,71
-78,79,103,64
-70,91,105,57
-79,98,103,36
-83,106,100,14
-80,112,93,8
-75,116,84,5
-70,109,78,-12
-63,109,77,-28
-51,118,77,-40
-51,126,74,-58
-51,129,76,-77
-41,130,81,-90
-29,122,82,-91
-16,108,74,-90
-4,99,70,-92
6,96,71,-90
10,96,68,-91
3,96,61,-96
-8,95,59,-94
-17,93,61,-90
-19,87,65,-86
-20,84,73,-76
-25,81,85,-61
-25,88,90,-39
-18,97,92,-13
-6,105,90,15
5,115,90,38
23,133,101,59
38,154,112,75
44,166,121,84
43,169,121,88
39,170,116,92
40,174,113,99
44,179,115,106
50,185,121,122
51,185,127,139
49,187,138,155
48,188,145,162
51,192,156,168
58,192,158,178
56,188,154,187
54,186,148,197
47,185,139,205
49,176,132,211
55,163,123,212
64,150,115,213
64,132,111,210
60,110,104,201
51,90,100,191
46,73,98,189
46,66,94,186
47,71,91,184
50,67,88,173
54,60,78,156
60,56,60,142
63,43,46,129
67,26,38,110
77,17,34,98
81,13,24,94
76,5,12,93
71,-6,4,86
74,-16,-10,73
76,-34,-27,64
74,-51,-50,63
71,-56,-69,55
59,-58,-82,43
47,-61,-88,38
42,-67,-91,33
34,-88,-98,15
18,-110,-105,-10
8,-115,-110,-30
-4,-111,-108,-40
-22,-111,-106,-50
-42,-117,-108,-60
-61,-122,-111,-61
-71,-126,-112,-58
-69,-115,-114,-56
-69,-108,-110,-60
-81,-107,-108,-63
-91,-107,-108,-53
-101,-102,-101,-29
-114,-93,-88,0
-127,-83,-76,25
-130,-75,-71,43
-130,-75,-65,55
-125,-75,-52,76
-118,-70,-36,94
-105,-59,-17,103
-93,-55,-4,112
-81,-49,9,128
-64,-39,19,143
-51,-28,27,145
-40,-16,34,140
-30,-8,40,135
-21,-1,45,132
-18,4,43,127
-12,6,37,116
-9,5,38,112
-3,-2,43,110
9,-10,49,104
28,-15,47,96
40,-20,40,85
46,-31,28,70
49,-40,23,62
47,-52,25,60
39,-55,26,65
23,-54,15,73
5,-53,-1,79
-3,-51,-4,74
1,-43,6,61
11,-34,12,37
21,-33,6,8
29,-31,-6,-8
28,-25,-15,-8
25,-18,-21,-2
23,-11,-28,0
23,-11,-29,-9
32,-12,-26,-18
41,-13,-24,-28
50,-5,-20,-33
57,13,-21,-36
66,22,-30,-45
79,25,-38,-58
90,21,-38,-76
98,21,-34,-83
104,22,-26,-86
110,22,-16,-89
117,27,-5,-85
127,36,7,-80
132,50,18,-70
127,51,21,-68
122,49,22,-73
121,47,31,-74
123,43,44,-72
125,45,56,-65
128,54,68,-59
135,68,78,-46
137,76,87,-28
137,78,89,-15
139,79,91,5
137,84,99,28
134,90,108,53
129,94,116,74
119,101,126,89
107,105,134,94
100,101,138,98
99,96,136,98
102,95,124,94
106,95,116,91
105,92,112,85
108,93,114,78
108,95,118,58
99,101,126,39
94,111,136,31
94,121,146,28
97,137,159,27
107,145,163,24
123,154,170,33
137,164,180,47
147,177,183,64
155,189,185,81
159,200,188,92
165,210,187,99
167,214,188,107
162,204,193,114
159,198,200,123
156,195,203,129
157,193,208,134
161,207,215,137
160,215,214,133
158,212,214,135
153,204,215,142
144,193,214,149
134,192,218,159
116,178,215,159
95,161,213,162
75,151,204,166
52,134,195,167
31,118,190,169
11,103,187,170
8,89,189,174
16,84,200,187
30,85,215,194
45,94,224,198
52,100,216,196
50,105,200,186
48,110,193,180
42,112,192,176
42,114,187,172
42,121,176,166
41,131,170,159
45,137,165,135
50,146,164,102
52,152,158,64
62,157,150,26
72,159,146,-9
80,155,135,-47
83,148,122,-78
77,137,106,-91
74,123,100,-83
75,113,100,-62
81,106,95,-44
85,98,92,-35
88,96,96,-26
91,102,101,-6
95,109,102,16
98,111,96,35
99,113,90,47
103,112,91,51
106,104,95,55
110,92,102,64
113,87,113,74
115,83,113,83
115,74,108,82
114,73,103,71
107,75,89,46
101,77,85,21
89,77,85,4
68,77,80,-1
35,80,71,0
4,83,60,7
-16,89,49,8
-21,94,36,0
-22,98,22,-9
-29,105,11,-24
-38,113,2,-47
-34,115,0,-63
-19,117,3,-74
-5,116,8,-81
-1,101,6,-84
-5,73,-5,-80
-17,43,-16,-64
-30,23,-23,-40
-51,6,-22,-17
-74,-2,-20,13
-87,-3,-17,38
-99,3,-7,60
-113,6,-2,77
-111,10,4,93
-104,11,9,104
-97,3,14,107
-87,-9,15,112
-72,-23,8,117
-61,-32,-5,123
-55,-45,-17,126
-46,-42,-16,140
-37,-40,-15,159
-29,-36,-16,175
-15,-37,-21,180
-3,-33,-23,182
9,-21,-19,186
17,-11,-15,192
23,-5,-16,189
25,2,-6,190
19,7,6,194
16,12,10,197
20,21,14,199
19,25,15,208
17,24,18,220
16,20,19,229
16,14,18,236
16,14,14,237
9,18,5,232
5,22,-4,222
4,27,-10,218
0,21,-15,213
-5,16,-24,209
-14,12,-30,205
-19,15,-26,201
-21,14,-15,196
-27,9,-6,185
-32,7,4,184
-41,12,12,189
-45,23,18,202
-44,39,29,216
-37,51,48,237
-22,51,64,256
-11,48,75,270
5,50,79,282
25,45,80,282
43,43,79,277
59,44,73,269
71,54,74,261
77,68,84,254
78,76,91,252
79,77,95,247
81,73,96,239
90,69,95,233
93,72,97,234
90,90,98,239
88,106,94,241
84,115,88,233
81,123,85,223
82,135,83,214
88,147,85,202
94,155,87,192
94,160,84,187
91,156,78,174
91,148,67,160
93,142,60,147
96,144,57,131
98,143,56,115
98,136,52,107
87,122,48,105
69,111,50,116
48,109,55,135
31,106,56,144
26,102,52,147
27,99,51,149
25,96,53,148
22,89,57,144
19,81,63,140
17,69,70,137
24,58,78,138
32,50,81,140
35,48,74,152
27,40,62,171
17,28,54,189
6,13,51,195
1,1,48,196
0,-14,45,192
1,-20,48,197
3,-18,53,205
5,-18,49,213
3,-23,37,210
1,-27,29,205
5,-26,23,207
9,-30,19,204
8,-32,20,202
2,-26,28,208
-2,-19,30,212
-3,-19,26,212
-4,-18,22,211
-3,-12,13,208
-5,-7,7,200
-15,-7,5,192
-20,-10,4,178
-27,-19,2,162
-44,-26,0,149
-61,-36,-7,138
-72,-42,-18,129
-88,-52,-32,114
-111,-67,-48,99
-130,-73,-53,94
-150,-73,-55,94
-165,-79,-58,87
-176,-74,-62,67
-187,-64,-71,35
-203,-65,-78,8
-214,-64,-86,-7
-215,-61,-92,-21
-203,-59,-92,-35
-195,-56,-93,-35
-190,-53,-96,-29
-190,-47,-92,-26
-193,-44,-88,-23
-193,-45,-87,-20
-189,-37,-86,-11
-179,-32,-83,-1
-165,-25,-76,9
-157,-20,-63,21
-152,-19,-54,37
-149,-13,-51,60
-147,-11,-48,78
-142,-6,-44,89
-139,2,-41,95
-132,11,-38,99
-122,17,-41,99
-114,26,-47,100
-112,40,-51,99
-111,45,-63,100
-98,49,-72,106
-83,57,-73,107
-69,56,-74,102
-58,51,-78,87
-43,53,-80,71
-28,51,-88,49
-15,48,-98,19
-10,46,-108,-2
-6,49,-109,-9
-9,51,-111,-10
-17,47,-116,-10
-29,32,-117,-22
-40,22,-113,-29
-57,12,-106,-23
-77,0,-106,-12
-103,-25,-118,-3
-124,-53,-128,-3
-139,-71,-129,-11
-148,-75,-130,-21
-159,-79,-127,-30
-170,-79,-124,-36
-182,-77,-118,-34
-199,-81,-111,-28
-218,-89,-110,-22
-234,-98,-115,-23
-244,-112,-117,-30
-261,-122,-121,-39
-281,-135,-134,-55
-299,-147,-152,-74
-318,-167,-171,-103
-323,-187,-180,-113
-322,-199,-179,-111
-313,-201,-175,-98
-300,-202,-172,-86
-304,-201,-169,-65
-290,-194,-167,-37
-263,-192,-169,-13
-245,-185,-167,4
-231,-179,-160,10
-219,-175,-151,18
-200,-171,-141,29
-182,-163,-133,36
-167,-154,-125,37
-149,-148,-111,38
-127,-139,-98,43
-104,-125,-95,45
-83,-111,-101,38
-70,-100,-102,28
-67,-92,-101,16
-68,-99,-106,5
-74,-105,-110,-1
-93,-108,-112,-16
-123,-119,-120,-42
-155,-134,-131,-83
-182,-146,-142,-113
-200,-147,-153,-130
-210,-139,-159,-144
-211,-133,-164,-146
-204,-133,-166,-147
-189,-131,-171,-155
-168,-129,-186,-162
-146,-124,-200,-164
-119,-119,-201,-165
-87,-118,-193,-157
-53,-112,-182,-153
-24,-102,-163,-148
-3,-88,-138,-125
7,-77,-117,-85
17,-75,-102,-43
31,-79,-92,-5
31,-79,-86,33
17,-68,-90,58
3,-63,-99,68
-13,-73,-106,72
-36,-85,-115,72
-55,-85,-123,76
-68,-87,-127,71
-77,-93,-136,46
-94,-106,-154,-4
-116,-115,-174,-78
-122,-123,-190,-153
-127,-138,-201,-218
-122,-149,-207,-272
-114,-144,-202,-310
-109,-125,-183,-314
-109,-106,-167,-280
-111,-86,-150,-211
-111,-83,-144,-137
-107,-82,-146,-70
-110,-79,-151,-17
-111,-77,-152,32
-111,-67,-145,68
-116,-58,-127,91
-118,-49,-108,112
-106,-41,-98,135
